# 3D point list with one line of data per point:
#   POINT3D_ID, X, Y, Z, R, G, B, ERROR, TRACK[] as (IMAGE_ID, POINT2D_IDX)
# Number of points: 334, mean track length: 6.7566124109867749
2266 -0.41081280786403745 0.70251394447855209 7.8888088640978244 122 79 50 0.060941212405164313 34 726 33 673
571 1.2396979071634635 0.19129355183690153 5.5551723428974809 131 107 80 1.3998086751904586 24 65 34 90 28 117 17 68 15 136 9 89 18 62 8 74 7 66 39 81 4 94
1450 0.31772387596598967 1.3441577341988502 5.4652264709919178 113 76 50 0.17065487633995291 45 801 43 675
572 1.1363974612878811 0.14446556612719988 5.4838301921711832 187 158 135 1.2633307195060435 24 72 28 118 44 80 32 66 45 61 36 54 40 68 43 44 35 51 23 59 17 73 42 56 15 73 18 37 37 34 41 40
574 0.14344049077180418 0.40463357908467218 5.4753106057595282 102 76 60 0.935492845239288 34 94 28 122 33 79 31 45 46 38
1961 -0.33469210029711866 1.6366710561451649 6.2935107457162509 120 81 51 0.24449068587967501 17 341 15 334
575 1.1494510159555593 0.17396705584609923 5.5156974519972612 174 152 126 1.0546268025930008 34 206 28 123 33 218 47 207
576 1.1918026313414463 0.27940884063899141 5.578983451390318 106 79 57 1.0032226456681692 24 121 28 125 25 296 47 308
578 4.4131721017533554 -1.1953264762981493 10.867290677568523 125 83 52 0.36358459444582969 34 210 28 129
579 0.40671553188722404 0.61647338439336996 5.6141990350449049 243 205 174 1.8879656444898245 34 154 28 133 8 571
1522 0.51714311382009182 0.65869233946453565 5.7458319121160075 108 82 59 1.2304653409034623 35 446 12 870
580 1.3410390418136804 0.78026457801879034 5.946288713787065 149 122 100 1.370093469886982 24 89 34 150 28 134 32 136 45 136 36 103 40 120
2039 0.54101614743174542 1.2515281173491399 5.6511211068062517 130 101 76 0.64418216417049412 32 731 9 813
582 0.53469682710003519 1.4015326014981551 5.782142073887889 32 19 12 1.5071494641906453 44 103 45 163 40 80 35 63 28 151
2033 1.786012240473005 0.035845837023715695 6.2441898639854641 137 92 60 1.2075564014650773 28 177 9 687
3574 -0.068343276245106305 -0.033461327641718774 6.3596813785416311 105 82 65 0.16801939762289744 27 885 29 513 30 783 48 645 26 438 49 676
583 -0.47863460407503033 1.5545727010347359 6.4878205405771592 116 74 45 0.45592587119548222 24 167 28 161 32 152 36 183 9 79
584 0.49533118288813982 1.6494429176402505 5.6728270709700643 191 159 136 1.2655031334382296 24 114 28 164 32 82 36 102 17 171 25 210 12 184 31 234
587 0.56340251692190435 1.6858249263642995 5.7203575522266021 173 142 116 1.3592418963181105 24 175 28 174 23 172 15 355 25 335 12 372 22 108 27 435 3 876
1530 1.6787171151685327 0.17466849644347715 6.0849857771671765 126 103 79 1.0748040419509166 40 507 35 498 8 410
588 0.09507065540009689 0.93643975139389601 5.4816058868852897 255 255 232 1.6932291547265117 24 256 28 180 32 327 45 260 36 320 40 378 43 391 23 269 17 281 42 369 9 198 18 260 37 353 22 393 19 289 41 495 21 456 38 473 2 267
2047 1.1858761081419045 0.58905814268168355 5.70427520939554 163 136 110 1.9156654125771924 24 423 32 512 40 364 43 398 23 420 42 365 15 379 24 147 44 165 34 224 32 140 45 144 36 143 40 150 43 133 35 133 23 148 33 235 47 253 18 629 22 144 41 120 41 547
590 2.0366609393467492 1.5882127519974483 6.0390659866758609 118 81 53 0.31483792372181607 34 321 28 196 15 116 17 131 25 191 33 323 12 162 27 252 31 379 46 517 10 131 29 245 11 146 30 334 26 498 14 141 3 127 1 118
2041 1.1207052039496361 0.57701179876067143 5.6681673579999661 202 173 145 1.3435926364636066 17 36 15 36 23 21 25 81 9 37 18 24 22 22 8 45 10 70 12 127 2 55
595 0.23538599445251784 1.4437037653449623 5.4536308079337754 116 79 53 1.0777480873504242 24 225 44 197 28 223 32 173 45 154 36 173 40 170 35 247 43 250 23 161 17 268 42 403 9 313 18 584 32 757 37 553 22 856 8 192 10 598 19 189 19 393 41 558 21 498 2 216
1474 1.3119445667430529 1.2041970351658258 6.3396892061948087 66 43 23 1.2081420104101843 45 824 43 883 42 716
598 0.081293619254935875 0.31706280364985989 5.490834021333618 113 85 58 0.54498078902211267 24 400 28 242 15 234 10 266
3526 0.21083059025340972 1.3705598344877028 5.3717991245195336 213 165 125 0.81113254245375976 24 629 44 532 34 733 28 937 32 584 45 522 36 615 40 553 43 554 35 595 23 592 17 636 42 792 15 885 25 579 33 523 47 499 12 953 9 858 18 580 37 656 22 592 27 374 31 392 46 366 8 753 10 881 25 305 33 287 19 530
599 0.65222228574784746 0.50044439315559497 5.820038259514094 18 13 8 0.98476264000183034 34 223 28 248 32 143 25 171 33 162
1323 1.2561471984419861 0.9574669217275259 6.1455994592533205 57 37 21 0.84428541643784794 44 511 40 598 23 899 42 325
3880 -0.064126097231743256 0.2542508825182444 6.2478343207159206 130 110 84 0.24922974676370901 29 802 30 753 26 366 49 417 14 469
1482 0.44117317377829268 0.60112670708953164 5.5940098798993318 124 88 66 0.49563444515497207 32 823 43 831
607 0.058893064872111635 0.26959543553460885 5.456695636916387 88 68 49 0.7417564262284263 24 307 28 271 15 377 25 170 12 249 13 215
1836 -0.036143755865047963 1.7149959642848938 5.6219951220960631 163 134 112 0.90799222663132662 24 243 43 332 17 274 36 349 40 328 42 570 9 325 15 223 18 323 37 562 22 223 18 208 10 222 13 364 19 258
3997 -0.20136491698404954 0.80173264523394194 5.8071731526561674 155 128 105 0.0038751986812096593 46 574 48 698
610 0.93124131694067691 1.2628005496153267 5.8836357718752179 113 86 64 0.87156530803477439 24 135 28 286 32 170 45 101 36 95 40 78 43 81 35 62 23 109 17 139 42 72 22 126
1426 1.231128809253367 0.91669050715935119 6.0468634235310166 88 58 36 0.035031226611560343 40 798 43 539
1943 0.71200464453669976 1.3495970523365379 5.7464323568842648 123 101 80 0.50263468285391455 17 132 36 122 15 109 25 194 33 125 12 172 9 165 37 113 27 290 31 185 10 179
614 0.1560714857909534 1.3996196893697788 5.4035360706002029 230 185 144 0.48566994364674326 34 355 28 301 32 301 45 398 36 229 40 292 43 279 35 281 17 231 42 398 25 274 33 303 47 383 12 599 9 311 27 600 31 534 46 538 10 328 29 438 11 419 30 545 48 746 13 405 38 502 20 346
1937 1.2165149824000301 1.247322602793959 6.2620617906656468 30 19 11 1.2022775127763969 15 40 25 45
615 1.4643141663021064 1.6620186925463587 5.9947931803593528 101 67 40 0.53474492778301408 34 283 28 302 32 280 17 210 15 269 25 248 33 278 12 212 9 170 18 152 8 143 10 173
616 0.59478841842513319 1.5513866609294753 5.7121382163734093 200 173 149 0.51173681727812403 24 233 28 305 32 359 45 420 44 417 36 471 40 320 43 424 35 346 23 611 17 168 15 322 33 548
619 -0.029756963953914348 0.54978275768747031 5.9958068338331776 140 105 79 0.47056939028187822 28 326 15 250 25 270 12 241 33 242 9 149 27 237 34 252 31 296 10 111 29 246 11 208 30 368 13 246 14 205 26 473
620 0.66941031488621505 0.69722417046189666 5.8324881649302078 31 19 10 1.1756390568633499 24 145 28 329 17 158 15 391
1951 0.70650685911435518 0.80576259319028698 5.4599834838264867 244 221 186 0.34275076109176422 15 162 25 267 31 444 30 415 26 730
622 -0.021489260947506188 1.3732635582563231 5.4179170524378648 175 132 104 0.46945611873355347 44 386 28 338 32 370 45 397 36 456 40 408 43 552 15 327 25 293 33 285 47 270 12 146 9 310 35 593 27 185 31 192 46 159 48 107 49 114 2 788
1945 0.37833236802859294 0.4247957383137399 5.410662110535009 146 114 83 1.1747923180833704 34 93 15 126 25 147 33 92 47 136 44 138 12 121 27 83 31 85 29 137 30 75 13 211 14 349
624 -0.55670004663966366 1.5322345660690824 6.5292349121817788 133 84 52 0.32855631733559126 34 338 28 344 32 358 15 326 9 290
4077 -0.21235651948698347 -0.11516596997462206 5.8797468828534063 207 179 150 1.5074407863238763 29 632 26 654
626 0.75214707858878282 1.5432497215509493 4.3006713187221202 100 65 37 0.46158146264241712 44 758 28 353
627 -0.14672027989308045 1.636075639240171 5.7463321155947193 145 121 99 0.30766369858429798 24 350 28 358 32 328 45 236 17 464 15 344 9 889 10 574 3 451
628 -0.56876957757574753 1.6772399416030954 6.2812122728927866 132 87 56 0.26366856143217687 24 961 28 361
2023 1.7637815741196072 1.6790171169387516 5.9173443850008196 117 78 50 0.46167386959241474 24 972 15 844 9 822 10 695
4075 0.87878147209289181 0.43153326013688248 4.8504211613452162 110 76 51 1.2862787270714962 27 614 26 636
632 1.4936790489303657 0.032070651936738179 5.8202335106147816 214 179 153 0.86763159677303503 34 447 28 380 15 352 9 348 2 613
634 0.31040778652682999 0.50852368507124457 5.4448604911886225 194 164 133 0.93721471150674307 34 469 28 403 36 531 40 348 43 475 23 509 15 500 37 519 27 313 46 474
636 -0.24515080605142595 0.44968128618068387 8.2630404916219824 156 100 62 0.48115232415378073 34 504 28 405 25 407 47 760
2025 -0.45965437000103665 1.3572737391549801 6.7770894099413947 141 94 60 0.13812576907066976 28 925 15 847 25 904
641 0.034241875489759738 0.99922898225816958 5.4253196843124769 254 254 247 1.0736549922308249 24 597 28 438 23 558 9 203 17 325 18 176 8 228 19 158 2 131 7 213 5 227
1814 0.10917591540658281 1.8051067170821207 5.6094786953673568 179 155 127 0.089151181195509466 23 731 17 840 37 624 22 661
1299 1.4116440325708075 -0.020665742434779318 5.6811577652239897 254 247 215 1.1441966619288091 36 498 40 451 43 450 39 299
645 1.5637208006810794 1.4238066534672338 6.3791601107877556 104 70 44 0.38984203958619856 24 471 34 356 28 449 45 552 36 470 35 345 23 346 17 238 15 289 9 233 18 421 22 444 10 258 2 346
3351 -0.066342691043488736 1.1476014270586494 5.5035224766543696 246 210 188 0.31933336433871651 18 554 8 504 4 345
646 1.5196873435933278 1.6570312588316749 5.986694018280792 150 102 68 1.2601745814210337 24 348 34 329 28 461 32 353 23 630 15 71 25 435 47 677 33 537 9 291 17 343 8 64 18 90
647 0.30260586037104498 1.4514796986378173 5.5058255090743877 108 71 45 0.58233650217566657 24 484 28 462 32 296 45 311 36 272 40 301 43 271 35 272 23 317 17 639 42 258 18 309 37 399 22 431 8 652 19 533 41 275 21 501
649 0.06134602146976794 0.29489956109626847 5.5217443903954635 114 92 66 0.73942266831541892 24 988 28 468 17 734 15 482 25 287 27 207 29 154 11 241
1822 0.93969545858815329 1.2714606585979833 5.9072759312401883 105 80 59 1.023736301355948 44 389 17 917 15 546
3858 1.8431210277790535 1.4297072974457579 6.3187264407123616 113 76 52 0.342675556693741 29 934 30 602 13 722
653 -0.36833747121625054 0.1730366855252187 8.7526298393630402 123 80 51 0.34995251320513976 34 637 28 486 15 466
1820 0.21471205459940834 0.99555720606995346 5.4742787762466572 210 189 165 1.3672086053313932 28 876 17 888 15 547 18 540
657 2.9111930968137862 0.072435644695720044 8.4173652970888231 124 83 52 0.33205250009015613 34 775 28 505 15 610
659 2.8137007666431773 0.16718957712279819 8.2751268921815786 157 108 71 0.17425014325042837 34 768 28 513
3431 -0.195369623104065 1.6337831694324521 5.7990706111505812 91 72 58 0.5311475277257367 15 190 10 202 1 170
665 -0.25690399730662106 0.21920762811736347 5.8219405054146467 143 94 60 1.6351727689169169 34 808 28 528 36 747 47 608 18 476 19 478 4 150
1902 0.024238871841178448 1.0219786881721387 5.4211153579598577 126 95 71 0.40996619823665936 43 526 42 740 41 597 39 462
1387 1.5476184722916839 0.82967152848673442 6.2479510317057132 84 60 37 1.5236964058680442 40 74 43 70 35 108 24 553 21 99
3944 0.11252941452038327 1.5807701844903403 5.5263056258594325 102 73 54 0.2940220510103988 30 159 31 201 48 183 49 240
667 -0.33760708210491958 0.66220293586656065 5.9156909711599202 171 156 135 0.72143735979969081 34 256 28 537 32 809 15 558 25 412 33 171 47 165 12 335 27 250 11 322 3 931 1 372
3938 -0.19481340887204959 0.1165631925663085 5.9259334548362688 64 46 33 1.3512143953352715 46 123 48 80
669 -0.24748675827199793 0.79852835356322671 7.6688349942077085 105 66 40 0.23970960301764282 34 732 28 547
670 -0.28865325684837223 0.87743611448222847 7.5428517980752074 146 95 59 0.21033143293813575 34 738 28 555 25 825
671 0.75208531462319039 1.0154988582770426 5.350857114058349 152 118 92 0.32648609718433436 44 264 28 562 23 455 17 374 15 871 25 216 25 652 47 688 12 658 27 658 31 609 46 445 48 682
4061 1.7408864997743692 1.9356856104499771 5.5158812558954109 158 105 68 0.24239469718473594 30 548 26 518 49 603
674 1.7127949587297975 1.5385100705943593 6.1967344134887732 159 105 66 1.2246009287251216 34 440 44 618 28 579 24 483 32 605 36 649
1331 0.29234929547896565 0.97001551099037819 5.4425372315246099 180 154 131 0.39733404531715877 36 836 40 667 12 683
675 0.11554215866175882 1.2837105827388988 5.3588549501884559 255 255 221 1.6928512484454599 34 727 28 582 17 942 35 373 42 386 42 517 18 418 37 381 19 522 41 511 38 737 16 623
1490 0.97662408354515573 0.68566014462664038 5.6664541348877577 99 76 56 0.62863922889036306 43 61 35 45 42 62
3383 -0.85209791842908167 1.7340676657855281 6.2364008031277365 117 76 49 0.45163472400910715 9 872 23 979 8 732
678 2.0064404291270543 1.7536888869072327 5.7854958992832168 125 85 56 0.73797818878408483 34 280 28 599 33 282 15 308 12 168 9 300 27 294 31 291 29 238 11 296 30 330 48 514 26 505 49 553 13 396 14 361 3 396 10 419 2 276 1 343
682 -0.4856016774781059 1.561093269596145 6.4621022439825477 110 72 43 0.21686039463888127 24 929 28 614 17 933 15 893 12 702 9 524 10 893 3 433
3896 -0.012679127787834739 0.95421994387724951 5.5734715206058869 253 250 236 1.5850447820895486 31 364 29 848 30 167 47 125 31 129 46 103 29 108 27 95 49 256 27 388
683 -0.095113129973643185 1.5041435043023605 5.5872563431994093 92 60 41 1.790174420395289 24 641 28 615 32 767 17 797 27 805 31 615 46 522 48 777
686 0.079539809265322434 1.6808119312604235 5.5915149653600187 144 111 93 0.43482547654503545 24 659 28 636 44 562 32 350 45 427 17 823 12 633 10 664 13 634 14 638
2009 -0.26198767273104523 0.42513416603854104 6.0200719283444837 189 156 129 1.3627471127882766 15 708 33 475
687 2.0852487560014938 0.84376803360667685 7.2505466220106918 148 108 69 0.32194536573193844 24 701 28 639 17 543 15 476 9 358 2 323 2 612
1852 0.55744916951556445 1.5456474863121015 5.6100964888640297 119 102 88 2.0925237215516628 35 24 38 16 42 22 41 27 43 23
689 1.1971280250409253 0.85271007408917843 5.8989495630034687 255 250 229 0.010131143968190598 24 1009 28 651
1798 0.94816340123670029 1.5933010362882638 6.0282785677315376 62 38 25 0.38848265099228391 28 635 17 693 2 812
690 2.0186856994128499 0.9771008487016104 7.0560961619664635 122 81 51 0.42240701580469492 34 720 28 653 32 711 36 890 17 772 15 700 25 625 9 462 2 378
691 1.9943661751888078 0.97603025197814186 7.0514631905090033 86 59 35 0.31725242872997611 24 723 28 655 17 771 15 701 9 672 2 380
693 -0.12976977077407431 0.7874677161236866 5.7448110218998636 112 93 75 0.69402382642610061 34 645 28 661 36 666
3335 0.22015765113464716 1.0843300961547375 5.4332824842482603 251 241 212 0.60833514730738159 18 303 22 194 8 367 37 449 7 177 4 224 6 253 5 266
694 -0.1028564415006437 1.4494483537224159 5.6230372761394731 63 43 31 1.340645941031031 24 930 28 670 32 904 24 932 40 848 43 706 17 703 15 593 29 775 10 565 2 779
695 0.45368585148552415 1.5425549145436688 5.6625655385158149 234 210 181 0.21761945515327996 24 953 44 612 28 671 32 775 45 548 40 642 43 742 35 622 23 997 17 779 47 526 22 867 8 760 19 782
1796 -1.5362740394854615 0.32233476260695515 8.6890409477071433 119 76 47 0.87505832100451286 23 817 17 688
3848 -0.33053411429629564 0.69199727853956161 5.8972736359385118 111 88 67 0.29744801012332428 29 844 31 469 30 514 48 412 26 765 14 814
699 0.27565221234248782 1.5598206806145642 5.5577335111583874 161 125 102 0.76635008382183967 24 959 28 685 36 935 40 877 43 748 23 1001 42 653
702 0.5327282782692887 1.6772890901800372 5.7064314749263021 205 175 147 0.38044218276108577 24 654 28 695 32 903 23 722 25 601 33 562 46 772 10 877 27 790
1804 0.47796277220944883 0.68739653087287544 5.5899969321455263 115 95 71 1.0664078798253056 28 467 15 351 25 623 23 279 12 500 32 811 8 248 10 402 13 264
705 -0.62810699596909192 1.6183333205385542 6.382249372323451 165 110 72 0.30240662219357367 24 947 28 699 32 439 35 719 23 591 17 679
1878 1.5991486540307907 0.43722048211216163 6.016292374267401 92 69 49 0.29788883921239606 43 823 42 496 37 706 41 593 38 481 39 465 20 487 21 466
2087 1.5498705291190769 0.45056329115615795 5.9475489710204812 72 56 38 0.41656752028446969 28 279 25 371 33 390
706 -0.071168965674295551 1.6504883189706949 5.6401542392780124 169 147 122 0.59465169698273046 24 975 44 441 28 704 45 626
1363 0.54794854315620556 0.86697199956247561 5.3350987948509756 147 112 89 1.1627821187870002 32 882 40 888 43 807 31 593 46 790
707 -0.10212127314307608 1.6674792304048924 5.6882434585189969 133 105 83 0.33611999707873336 24 980 28 710 32 796 45 631 36 542 40 587 15 790
709 0.30701622750406038 1.7368635702399546 5.6358995047296689 102 72 61 1.4261117047294936 24 664 28 717 35 440 23 626 17 473 42 232 15 219 12 384 9 897 18 594 37 414 22 445 8 541 10 338 11 892 29 789 13 936 19 403 21 373 38 515 3 430 2 512 7 342 16 354 39 359 4 525 6 372 5 633
710 -0.015554564039942636 0.82460867148985395 5.5351794907136815 117 90 71 0.73108114936541502 34 644 28 721 22 772 27 562
2084 1.7015491306912587 -0.21353145251605946 6.3340530940218143 137 88 59 2.1323424415536385 17 471 28 475 25 525 8 616 9 474
3928 -0.011559599000499339 0.68054968134440708 5.6681058463885563 0 0 0 1.1509746046158229 25 19 33 38
3113 -0.16958717988661365 1.3203078945166069 6.198990341172367 112 87 67 0.63153969576789903 27 186 31 228 46 197 29 199 30 161 48 262 14 175
715 1.2673894286562262 -0.0089430749645385641 5.5990635641433242 212 169 139 0.63303071479663608 24 782 28 739 32 614 45 653 36 497 40 450 40 885 43 581 35 638 23 525 17 678 42 617 15 624 25 705 12 748 9 711 18 477 37 486 22 529 8 296 10 719 13 623 19 249 41 570 21 266 38 223 3 615 2 367 7 239 16 304 39 249 4 276 20 158 5 240
3922 0.10172105448462039 1.1555821651494989 5.4465109933995377 0 0 0 1.6592122353952325 11 2 30 3 48 6
717 1.5548684997683113 0.026875354192343281 5.8925759685110553 205 181 151 0.40447140490195349 24 382 28 746 32 472 9 344 17 384
2083 0.67731118964748405 0.52874208943414602 5.8333914996965284 56 38 23 0.68613448598814974 25 279 31 796
718 0.32746592735258018 -0.01494046414970108 5.2958550500833068 253 248 243 1.1653487089321966 28 747 32 612 36 727 35 634 23 635 17 505 31 645
1069 0.34538932733375216 0.9287183241467164 5.4331958938527292 174 150 130 0.15439602774897251 44 630 45 642 36 726 46 563
1884 1.0564982848732702 0.2084494742086509 5.4026149823492977 183 159 131 1.079255264783703 43 453 42 593 38 531
721 1.140748009475564 0.27171754407916804 5.5089454156274993 163 135 109 0.91294621856607416 24 812 28 765 32 899 23 832 19 436 21 433 20 229
1958 -0.68705119490721267 1.0401679377551183 7.3567381206567504 120 76 48 0.46323228730097443 34 535 15 293
2103 1.1480149089443537 0.71932549067217755 4.1588285207616735 130 86 56 0.95119024492509552 28 831 25 498
722 0.071293895276519484 0.1855834830883632 5.4037238514314421 199 165 141 1.4099942404847015 44 640 28 769 40 673 25 925 46 602 30 572
1443 -0.07735768968125975 1.2555928584674358 5.6149405617341195 254 252 218 1.2107076072926735 35 913 17 615
723 1.4619690910761436 0.29741744533069453 5.8149302993073224 175 138 114 0.77969811325021421 24 398 44 488 28 771 32 371 45 334 36 302 40 264 43 200 35 206 23 286 9 729 18 359 22 283 8 308 41 220
725 0.30913187307456991 0.27789269858470939 5.2712034261440097 200 172 144 0.99555749220246192 44 642 28 781 45 658 47 579 9 274 27 890 46 608 30 578 2 261
3495 -0.46513111813763952 0.38069113721010539 6.9201943442691531 105 68 42 0.46960011615277625 34 856 10 821
2100 -0.54340055401827447 0.063739966238304316 5.395209757380373 118 79 50 0.070567379570207894 28 760 25 486
727 -0.36144644870985648 1.3552858787610604 6.7790354187294142 97 61 43 0.31986197152734541 34 595 28 790 32 754 15 556 25 588 33 559 12 593 27 453 11 372
729 1.1624047675198974 0.41404858493650959 5.6360713013531978 148 123 100 0.41065479449970643 24 834 28 802 45 706 36 780 40 732 43 482 35 511 23 864 42 458 25 945 37 333 22 488 41 466 39 231
1966 2.7129597174828626 0.68891566998858 7.4239651967150921 129 88 50 0.41631050764389355 28 819 15 370 12 413 10 366
1451 1.403026176490636 0.97376017103201384 6.2030874194366543 117 87 60 0.21382712507014193 40 818 43 680 35 660 45 775 41 531
2104 0.13605005756840616 0.66965360078343983 5.3136901446030951 75 55 34 1.3378384605666647 32 454 25 501 44 694 31 583 10 837
731 1.5553202306903842 0.49533568267544548 5.9244053001986696 54 45 37 1.2187842804729501 34 781 28 806 15 672 12 473 9 751
4002 -0.00012587645951758913 0.83392852422251929 6.4970808274720966 116 99 78 0.1617529216521921 30 667 48 739 26 819 49 780
733 0.69587182623813237 0.53995190471469634 5.8174884678822112 13 7 4 0.51836191308747948 24 921 28 820
2099 2.2409798155427008 1.1290529919274985 6.7558625557574929 123 83 54 0.33433986990013942 34 731 25 483 9 374 27 817
734 1.2107513893280302 0.63601053290088327 5.7472065907696575 177 153 122 0.64081756424088099 24 1012 28 824 32 515 36 952 17 554 42 493 15 487 25 512 33 326 47 436 12 826 22 779 41 594
735 -0.96672144906521362 1.6058609399672279 6.4651709467429432 128 84 53 0.70838806496186812 24 942 28 828 32 792 36 930 23 948 17 947 15 779 9 835 18 835 10 674 3 951
1964 0.012307717629547297 -0.35859575822985568 6.1283437106122669 0 0 0 0.065209120784188168 17 379 28 731
737 -0.0025797347777503396 0.88264380868316705 5.5623289173675854 133 106 82 1.6432606747075595 34 676 28 851 43 802 32 277 17 583 42 817 37 699
1910 0.093778679471795245 0.97066699683900093 5.4622296493655593 227 191 160 0.076814450220600905 23 871 35 551 42 833
738 0.79753658931526927 0.99780506646693579 5.3532484030431728 159 124 99 0.26188737455232308 24 1011 28 857 32 665 40 771 35 788
1395 1.0932431770603455 0.27144181894467972 5.4761373569073255 171 147 118 0.61658607207756677 24 158 43 117 9 132
739 1.3837841165646836 1.1307934113498248 6.3187657550594851 110 81 57 2.1200240039770244 34 521 28 867 23 581 17 870 24 609 36 257
741 -0.063546047207545781 0.97593298232563341 5.6683685094072898 222 198 171 1.9515849214910379 34 713 44 745 28 880 33 652 47 471 27 715 31 516 46 342 10 946 29 413 30 526 48 720 26 394 49 373 14 509 1 810
3447 0.11667323532317238 1.4957004792517512 5.4578807567951078 72 50 36 1.7211348007311607 9 318 10 331 3 437
742 1.9931558210524318 1.4107175117451383 6.3432716189850566 115 77 54 0.26523293415897664 24 916 28 894 36 945 15 756 25 808 9 639 18 862 13 703
1918 0.25444503190262296 0.8371469664423995 5.3808042962054561 202 174 144 1.0413537750748483 24 193 44 169 34 228 28 204 32 219 45 173 36 200 40 224 43 207 35 214 23 180 17 187 42 187 42 691 24 712 36 670 43 442 40 330 35 822 23 770 15 164 25 182 33 169 47 216 12 235 9 140 18 170 18 602 37 186 22 187 27 243 31 263 46 234 8 245 8 688 10 248 29 744 11 262 30 739 48 318 49 443 13 292 14 475 19 233 41 226 41 795 21 235 21 678 38 210 3 230 2 227 1 815
746 0.17505602167086878 1.2669910123324937 5.3719794862526236 246 215 184 0.64501197783704289 24 911 28 910 36 889 23 942 15 866 25 860 47 744
3954 0.10248782963210938 0.49770929380128121 7.0340209321281382 80 52 34 1.0772969497609837 46 412 48 292
749 1.3395033742000053 1.5606629443929609 6.1898133075083379 114 77 49 0.27593884861607049 24 940 28 926 17 932 23 713 9 509 19 548
750 -0.15743184616198216 1.3027715906942476 5.5552574950829055 243 214 174 0.14686142687811962 24 913 28 929 2 809
751 1.9167871992746277 1.6735212243195625 5.914129791229481 147 98 63 0.36715617608488915 24 970 28 938 17 720 15 935 25 847 12 672 27 706 10 512 11 760 29 821 26 793 14 580 3 520
1916 0.4818187369764092 1.3142383851017203 5.6272298074279021 76 50 36 0.025342916015625914 43 694 42 859
753 -0.21167472445187935 1.4833545483420225 6.5413683769922875 103 67 44 0.41256616555826353 34 614 28 943 15 571 25 621 12 606 3 408
1862 0.95407298654123729 0.85190337917947256 5.4042231148116642 93 66 48 2.7452516496172956 40 376 42 190
755 -0.4052292353196485 0.98016305871797549 7.4166556454703407 143 99 61 0.49615408588812332 34 749 28 950 32 893 33 854 12 551 27 749
3399 0.089151280617795065 1.0973779110455759 5.4226326038673438 255 255 254 0.49649531462585106 18 228 22 231 8 238 35 382 37 316
758 -0.20749847760051451 1.4417396999179406 5.7538336155662533 152 129 101 0.17661264925278464 28 962 45 828
762 0.23505493097316693 0.43882031294672569 5.3989301273415 201 170 137 0.17753497178920413 44 828 28 969 32 853 40 714 35 888
1355 0.48876249875633082 1.3804902880109791 5.6895904923480982 78 50 31 0.31063468554446644 36 910 40 850 43 739 35 765 23 961 42 818 37 819
3912 0.069976444217796197 0.77602498486612914 6.9103659394134826 98 74 55 1.5699475405172603 29 41 31 52 30 30 48 38 26 13 49 21 14 80
763 0.38319504127175075 0.43837791927613612 5.4062245532580517 143 109 77 1.224490997655822 34 800 28 971 25 500 33 460 47 312 12 848 31 464
766 0.61157676788309467 -0.11876699292278119 5.6287679071540397 255 255 255 1.5955035679165488 34 0 28 0 40 0 37 0
1868 -1.6558003661536091 1.0746600058573295 6.4348923448286577 5 4 3 1.3288966813960732 43 626 42 378
3773 0.93124078637014174 1.0213345253856485 5.4536790645954314 104 64 42 0.71319505034608066 12 650 11 552
770 -0.20748136242649731 0.87522621617563223 5.7212694500415422 101 76 56 1.7032293922536599 44 6 32 7 9 7
772 0.83198551145770805 1.4312866173386682 5.6995283128862502 163 134 108 2.1330289214689393 45 16 17 17 9 20
1719 0.9615415564996177 1.1675297956542761 5.8845936128795771 132 105 82 1.7902071709079292 24 889 34 523 45 518 36 605 43 876 35 904 23 938 45 795 43 875 42 540 47 487 18 839
774 1.1467937640550476 1.0059592628813827 6.0263015609023727 73 46 28 0.15543378517579465 34 30 36 15
3254 -0.21445954370188275 0.48794531691860227 6.3018440840338421 169 149 120 0.18294452628232408 12 507 46 435
775 0.87632651123710648 1.0368414072956398 5.4114360942018127 176 146 120 0.59957240944330281 28 431 32 39 45 53
776 1.5219531173425258 0.12414153012137487 5.8623341858005666 170 146 126 1.3808558841670902 24 31 32 42 36 27 40 43 43 32 35 22 23 27 42 17 22 21 8 30 41 20
778 1.2437276871920953 0.84850424226248167 5.8909795730016512 255 255 255 1.5893514739692107 34 148 32 53 45 133 36 52 40 82 43 67 35 55 42 49 37 97 41 70 21 101 38 120 7 80 16 52 39 186 20 82 5 90
779 -0.19391272584734179 1.2108033006589562 5.5716969945974517 116 77 52 1.9629339475117642 24 136 32 57 36 185 40 182 43 286 35 379 23 192 18 409 22 195 23 62 41 509 38 361 7 67
780 -0.25801028005741233 1.6647382946546581 6.2634004016856419 97 66 41 1.9717656326705728 28 80 32 64 15 49 10 32
1727 0.18323965563884292 1.0372832599159543 5.435808009886606 243 212 178 0.73514960880724056 24 452 28 442 35 295 23 313 44 499 34 561 32 391 45 751 36 425 40 522 43 378 17 245 42 277 15 299 25 426 33 344 47 465 12 557 9 204 18 178 37 259 22 192 27 385 31 365 46 532 8 231 10 227 29 577 11 591 30 518 48 334 49 570 26 488 13 572 14 780 19 162 41 296 21 168 38 235 1 773 16 141 39 334 20 114 6 116 5 229
1721 -0.23555714661901728 0.26745152406349681 5.8491937090494668 141 105 72 1.7521369286532644 24 552 28 392 23 811 34 805 28 722 32 487 17 306 15 378 33 784 27 837 31 713 46 471 29 713 30 769 23 805 48 393 49 680
783 1.0193853733698481 0.52831393806633486 5.6021741528575237 152 119 93 0.51616733318016295 24 160 28 128 32 91 45 87 36 115 40 102 43 56 35 86 17 155 42 86 15 230 8 157 7 123
784 1.2600611737098599 0.54998361294371623 5.7447281948121942 179 152 128 0.93170493373098695 24 123 32 92 45 88 36 58 40 71 43 57 35 71 17 156 42 87 37 61 41 55 21 85
3725 -0.021313907100158694 -0.29469384228973983 6.2636398777662876 177 151 125 0.37191380249577849 29 623 11 662 13 491 14 730 3 647 1 324
786 0.89949338749258989 1.21288311048138 5.8307455327473461 151 123 101 1.1497957115687187 24 100 32 109 45 102 36 93 40 84 43 73 42 71 41 73 38 42 19 69 16 99
787 0.073459099712996273 1.3999368798448526 5.3967695222350009 209 169 136 0.61603500954956003 44 109 32 113 45 110 36 169 40 165 43 118 35 151 42 207 47 108 37 238 22 316 48 148 30 129 49 184 26 188 19 389 41 283 21 613 38 501 7 458 8 393 16 628 4 741
788 1.4702888500432589 0.090304740824886404 5.7828114568648692 185 158 134 1.2607025048974385 24 162 32 115 45 208 36 119 40 98 43 103 35 78 17 163 42 90 37 57 22 88 8 139 41 75 38 92 2 133
790 1.2717527716740931 0.87908686270930758 5.8770793234750567 99 69 48 1.947351927577941 34 262 32 134 45 183 19 138 20 178
3206 0.080224684638127403 0.57395424651577098 5.2816615433957459 192 170 139 1.5189271298262508 23 882 15 732 25 842 47 416 9 630 33 236 25 275 27 822 31 161 27 230 44 326 32 427 45 471 36 533 40 722 8 578 10 488 29 716 11 758 30 768 48 651 26 708 13 801 14 603 3 826
3723 0.0063786209484836048 -0.31704093084776253 6.2968858376369319 173 141 117 0.6332220576438089 29 620 11 657 49 436 13 670 14 412 3 644 1 634
795 1.7307338377644541 1.5248348750595242 6.1794843787299589 154 103 71 0.45476764447270168 24 169 28 145 32 153 15 118 34 293 25 99 33 115 47 160 9 124 10 128
1162 -0.14052711683680236 1.0768239480151263 5.6946503576710557 255 255 255 0.98799451959329332 32 560 45 501 36 431 23 639 15 839
796 -0.51103890675168417 1.4969973037030322 6.567922222609857 158 103 67 0.63866516555145902 24 105 32 155 36 237 9 77
1673 -1.6356475327170474 1.1646712444866474 7.3172459176277966 138 91 59 0.31315295164591667 36 967 23 769 18 844
800 -0.75963142184954935 1.47361767630329 6.6488310462307849 162 110 73 0.53509480934793019 28 160 32 185 45 845 36 463 40 584 43 420 35 692 23 582 28 340
2509 0.81839206320529223 0.65872566538654376 5.3117228253481308 161 131 104 0.1718347400551252 47 628 12 857 29 920
803 -0.085348272330727948 0.18700482589484924 5.60087760163574 170 152 130 1.428101449894642 24 261 44 156 32 206 45 215 23 295 47 208 9 146 18 224 22 895 8 288 26 135 19 647
1106 0.026086090309413595 1.6254364071518659 5.5874369852904948 143 117 98 0.19503430380926171 45 852 42 844 32 789 48 579
2502 -0.022391683813911347 0.068156803531504453 6.7371136328012824 44 34 28 0.31720845669000219 33 774 12 814 27 518 31 477 46 484 29 531 11 714 30 478 48 423 26 457 49 485 13 720 14 598 3 498 1 491
804 -0.014560418033365139 0.21567250848566238 5.5366364646757011 87 66 50 0.24553668255565242 44 144 32 207 23 388
1623 1.461877111431483 0.028255686077074287 5.7906947054777094 226 196 168 0.46508101904923393 43 606 23 387 42 734 37 431 8 298 17 498 9 667 41 377
1617 -0.12860261336106668 0.13230853761821929 5.6744191864129778 251 240 212 0.39445491191132731 36 290 23 299
1472 1.2229917676691311 0.31627357647651932 5.6266184748766825 148 125 100 0.36294152867685736 45 692 43 858 42 646
806 0.95024155035188018 0.87217391641891351 5.4823980781458763 123 90 64 1.8030827350111687 24 63 32 221 45 786 44 490 43 681
807 -1.2660886532334601 0.44512432113098876 8.4467999082524177 126 82 55 0.77986805875227494 24 151 32 224 45 389 36 310 40 532 17 93
2497 2.4453182778803986 0.82324223209813929 7.2565333083732479 165 111 69 0.46871200475810859 15 674 12 789 10 727
3158 0.28863604714694568 0.45087831317064825 6.016253024840462 54 36 21 1.3587051860596984 27 834 31 580 11 732 30 480 29 535
810 -0.103893282861661 0.9615804569032792 5.7532729055555274 205 177 147 0.46862301407053925 24 201 32 235 45 496
1114 1.1216648850064297 0.5117923908226929 5.6443584071571786 167 140 116 1.9535064832407274 24 495 44 691 32 833 45 338 24 337 44 331 34 407 28 398 36 305 40 353 43 406 35 415 17 404 17 541 42 352 15 688 25 379 25 770 9 372 9 779 22 378
811 0.036646840020647019 1.0929552093475154 5.4422307762188042 255 255 251 0.49525140351237695 34 174 32 236 45 230 36 332 23 903
1631 1.3177848068137741 0.3726529457358026 5.725851410823191 151 126 101 0.31344740785908504 35 509 23 478 42 464 41 357 19 336 21 333
812 1.0809779691134376 1.0720195873040168 5.9139315644581565 78 52 33 1.4947794654842206 34 172 32 237 45 125 36 156 40 154 43 120 35 161 42 118 47 147 41 109
1625 0.78548432057432072 0.72360355200514836 5.3433072483978856 106 82 60 1.3346406930896024 28 964 23 426 25 794 18 768 31 484
1480 -0.93421182322466867 1.609556495422136 6.1057757405580491 166 112 74 1.7724684834406572 28 711 43 251
814 2.1111407054049871 0.94355213382247738 7.0913823141684427 106 68 44 0.90879371840042322 28 235 32 239 45 293 33 253 47 269 44 298
815 0.49565908250129859 1.2013982167738224 5.5568132031966559 176 142 116 0.40596253330878906 24 129 32 242 45 186 36 158 40 130 43 116 42 142 37 130
818 1.6193626660002023 0.66035032049454145 6.1674952929469242 132 106 84 0.66695292915758142 24 294 32 270 45 177 36 146 40 119 43 66 35 114 23 142 42 50 37 64 22 107 19 113 41 53
3548 -0.29698531287040397 0.49285424407008499 5.9688425041901638 211 187 164 0.63691500469353945 27 403 29 166 30 183 48 209 26 167 49 166 14 193 3 703 1 287
3757 -0.28997639328966884 1.1044011265044471 7.1843493864560655 104 67 46 0.035373781008405512 12 1012 11 932 13 884
1186 0.36823561434541197 1.4346655369076973 5.5592888662477904 81 51 30 0.56662987914931784 32 460 45 412 36 624 40 570 43 712 35 609 23 974 17 635 42 546 9 539 37 803 22 599 19 771 41 526 38 528
826 0.87920600452594411 1.336800094837395 5.8613645772836866 152 126 102 0.97808232150917707 32 302 40 108 36 98 43 107 35 141 23 106 42 107 8 179
827 0.074427545279131049 1.3606440076052877 5.4229639693660543 43 31 21 0.88798533391896484 44 805 32 303 25 324 12 598
1711 0.95331354268830426 0.91831848699750496 5.4474650008431649 165 133 103 1.3606523747995558 43 870 23 1011 18 547 21 358
828 1.3501373500806901 1.1573450260193561 6.2679545996623762 104 73 50 0.19986261335530847 24 457 32 310
1705 -0.84739076625043175 1.6835247628489762 6.3092516242406154 150 96 61 0.019091619630014642 35 722 23 967
1496 1.6841353000738737 0.018398582638328827 6.0952404877339106 231 204 175 0.77741817183904371 43 102 35 79 18 31 2 45
832 2.0361863719531144 0.75560020635414804 7.4235745532539319 146 101 66 0.5146965698446867 44 528 32 321 36 319 40 566 17 159
834 1.366814616695071 1.1397336059287184 6.261204475612141 102 72 50 0.58339532634308722 24 367 32 335 17 876
836 1.5243253189539336 0.024875113938524904 5.8585602764815885 234 212 182 0.66484708007916749 24 314 28 365 32 344 36 186 40 217 43 195 35 202 23 232 17 314 42 159 15 363 9 262 37 151 8 146 10 431 19 127 41 146 21 132 2 132 7 145 39 97
1777 -0.63163596887197582 1.7317921284923676 6.2028040551553874 139 85 56 0.33440802801087915 24 352 17 460 9 315 18 577
838 0.34645654149061333 1.5112522179854551 5.5966624084523087 54 34 22 1.7238600443242664 28 339 32 362 47 781
839 0.51508610961432666 1.2751058840784266 5.640467011097301 112 79 54 0.42822687670667042 24 908 44 382 32 374 45 191 36 223 23 327 18 337
3318 0.38168141754788054 0.12611134559658602 5.2875186355194419 238 212 185 0.53043925488611954 22 302 8 147 19 652 4 283
842 0.73981851598802917 1.0883053574851129 5.3793376110596896 156 127 102 1.6170916378343669 44 748 32 385 43 868 33 502 33 625 17 908 47 353 46 475
843 -0.21772057571080866 0.23517957100354062 5.7804551615627728 125 93 71 0.31329481263049619 44 323 32 386 45 454 36 748
1791 2.4574551413080425 -0.11253294942554981 8.8276437446654175 147 99 63 0.12389834086848676 24 796 17 656
844 2.022323585474247 0.66371646523107786 7.5795409840385428 160 109 73 0.43564385032981706 24 295 32 396 45 800 36 432
846 0.26172863344950797 0.799098860974498 5.371712486132779 195 165 139 0.10639071077701689 44 439 32 409 40 363 33 480 47 642 31 594 41 478
847 -0.26752047444350996 0.72135899494586952 5.8296162832483231 120 103 82 0.36870426615592361 24 425 32 410 36 401 35 840 23 534 17 786
850 0.2181298013616762 0.61230227635150491 5.3454741701320101 254 250 213 0.087126985578352134 28 368 32 421
1059 -1.3237352287876889 0.23396443888881899 10.746393323330727 156 107 69 0.1603352991459614 32 324 45 596
1218 0.19893374490415938 0.70002923291788854 5.31629492167544 188 155 123 0.91248522412258892 45 776 36 819 40 743 23 666 42 669 37 593 41 783 38 646 39 661
854 1.6362571308642073 1.6119876489830125 6.0594216778892749 128 85 54 0.17298340692766223 28 588 32 436 33 703
1572 1.4274372614984727 0.29816185307577675 5.7913021236508619 192 167 140 0.30281817552153589 43 847 35 872 42 665 37 592 22 630 19 582 39 668
855 1.064051451184028 0.78245293353915824 5.7749537461348321 189 158 126 1.7220222152672542 24 430 32 448 23 776 42 273 35 302 18 609 37 366 22 248 19 361
3270 -0.18520558968469997 0.86191916583530981 5.8282644281232567 131 110 88 0.10640517022669696 33 628 46 662 29 867 30 590
858 0.30110533070155215 0.94268132044992858 5.4348502621469486 183 149 120 0.26297174573316118 28 861 32 456 40 629 43 785 35 806 23 872
1067 1.1887881200817902 0.28682578365201855 5.5677905847989262 92 65 43 1.4170477905322676 34 420 44 832 45 638 36 759 24 816 40 711 40 716 43 861 42 642 9 743
1226 0.94635499890456021 1.0305272451607748 5.5806444316569097 108 77 53 0.96499580897626369 32 888 34 697 23 921
859 -0.10319166159661629 0.063857317365320271 5.6901241629613679 205 180 156 0.52696704154467788 24 385 32 470 8 280 4 147
3624 -0.2012610933701795 1.3398356414802852 5.6585566325221777 105 76 52 0.70892616114649709 33 283 31 151 29 275 46 505 30 232 48 374 26 220 49 245 14 309
1737 0.19728059390278177 -0.22954153893636545 5.5586994289418152 255 255 255 1.8602286005650062 35 17 23 14 41 22
862 0.86172562313340006 0.50404508624480815 5.2873421457148604 222 200 165 0.79586092811283926 24 416 32 495 45 465 40 267 35 207 42 178 37 179 22 181 8 257 19 275 41 143 21 242 38 167 7 153 39 116
1580 1.1177114776517105 0.23616747124698911 5.4834147288833632 179 155 129 0.30871901282696956 24 809 43 661 35 891 17 709 39 635
863 0.86822987927058859 0.52031995754825699 5.3106673636110813 208 185 153 1.0186709319412688 24 497 32 497 17 549 9 463 28 817
864 0.053023031571874366 0.53044320037539661 5.3324406371739759 92 64 45 0.53644146546944194 44 679 32 498 45 694 36 530 40 494
866 1.5501282877026705 0.54501269692771748 5.946349303511405 134 108 86 1.5084458015670752 28 480 32 510 17 403 15 494 34 404 25 375 33 767 12 295 9 758 27 506 8 323 11 483 4 319
3741 0.091222949966456315 0.55450490674495301 5.5259471074915254 254 252 224 0.22385987711162855 29 719 11 757 30 761 48 666 49 480 14 468
1170 0.44451162829762042 0.65727419781214858 5.5556742917446531 173 138 113 1.2237553804720265 32 818 45 572 36 477 40 797 43 497 23 414 37 339 21 214
1687 0.087620409387118944 0.49493475996749664 5.3862814617999053 142 115 93 1.1376436388605486 44 678 23 857
868 1.079500614023329 0.61518826194861831 5.6625432735529451 193 167 138 0.35032350051509115 28 510 32 513 36 856 40 845 35 535 42 484 15 419 18 816 8 606 37 267 19 412 41 338 21 459 38 475
871 -0.32814846780950002 0.78886407974327899 5.9219872972159919 102 78 59 1.1561027215973405 24 699 44 266 32 533 15 215
3222 1.7371282655747391 0.2411941537128956 6.0700406302247254 8 7 7 1.9742679930273794 25 29 46 39
872 0.11083717700918946 0.91198918350981972 5.5211747156110356 248 223 188 0.23080117785812426 24 522 32 542 45 648 36 565 43 795 35 814 23 691 17 589 42 846 15 537 9 499 18 779 22 498 8 614 19 445 21 686 2 263
3739 0.1115874775071823 0.51369393368738792 5.5281231268793061 250 221 188 1.3316821999953414 31 818 11 751
874 1.3606580916223043 0.90826088962460683 6.1261809162127676 83 57 37 0.65199129965140323 24 668 44 755 32 553 45 504 36 435 43 366 35 378 23 446 42 525 18 788 37 388 22 576 19 733 41 415 21 432 16 637
1178 0.38680982342384607 0.57285336056185165 5.5136216958218958 154 122 95 0.59651233409518956 24 750 36 549 23 487 43 485 42 457 9 600 10 614 41 362
875 1.514587445041145 0.92709936702823592 6.2935479041730682 104 73 50 1.021634866039953 24 533 32 556 45 384 36 438 40 403 43 189 35 234 35 372 23 449 42 219 37 124 42 117 22 201 41 112
1695 1.0878802287399179 0.90265632711988175 5.5106366008061194 175 146 115 2.0078245281182903 24 726 23 889 17 977 8 501
1689 -1.1202332728434381 0.62931230105263058 8.086013155286258 132 89 55 1.1756634867387215 24 977 23 859 17 526 9 447 18 711
878 -1.2402277405445865 0.92331287886179247 7.6506176929750769 129 80 51 0.47189586609912715 24 435 32 566 36 585 23 417 17 410
879 1.428225084566533 1.1040598137038342 6.3347596734898231 102 74 51 1.7039522364664261 28 852 36 339 24 453 23 578 17 863 37 556 22 424 19 761
880 -1.2216431150694083 0.99639760431705671 7.5195640189548758 165 109 72 0.51923366920338321 24 442 32 571 36 760 40 842 35 703 23 424 18 467
882 0.4289106273226389 1.3962562641684615 5.57369054191778 108 75 52 0.40913678345966376 24 630 32 587 45 291 44 246 36 461 40 299 43 180 35 274 23 336 42 220 19 225
1250 0.59384489560802711 -0.22142642995518674 5.7494679005578604 255 255 255 1.4687099443983076 44 0 48 1 46 0
883 0.28602606240481082 1.4664891993939433 5.508767885018016 89 62 40 0.65016826037753794 32 592 37 400 24 938
1761 1.3919573298188552 0.96986968781654603 6.1671389537714463 119 95 69 0.92577298439700462 28 249 17 282 18 175
886 0.88634727265683855 1.5056788212770811 5.951029454849138 124 97 76 0.20511840357474323 44 616 32 602 40 324
888 -0.55206065759188494 1.5811909885457687 6.4388262062416386 167 112 70 0.96405887064216111 28 349 32 608 35 613 43 761 17 941 23 956 9 825 2 161
3819 0.26806420601111447 1.0448012965296132 5.4536498567556624 222 190 165 0.42725015226199892 29 295 30 344 26 551 49 503
890 1.4800315061083533 0.011232385046809375 5.8095263245073419 237 215 185 0.46421464545689894 24 364 32 618 36 371 40 470 43 456 35 332 23 386 17 383 42 333 9 346 37 290 22 297 8 295 19 244 41 244 21 256 38 171 2 309 7 232 16 255 39 210 4 287 20 152
1258 0.85876887830819548 0.65171358292621506 5.3626396596535688 187 160 137 1.3595988408691453 36 37 40 46 43 37 35 34 42 26 38 27
891 0.55421891953498681 0.3298985103135838 5.2272357145598889 222 194 161 0.19140787765501407 44 653 32 620 40 686
892 1.1956663079660623 0.1481716279029637 5.5233041758300283 253 229 197 0.48418193558999906 24 800 44 646 32 622 36 490 40 687 43 600 35 900 23 818 15 906 37 632 22 542 8 653 19 797 21 731 38 575 2 653 7 595 39 440 20 275 6 754
893 1.4845101957169584 0.075803263154334111 5.805377400919574 182 158 133 0.34131060983933176 24 536 32 623 36 376 45 325 43 315 35 486 17 684 8 637 41 712
1769 0.17239885326594367 -0.5452605273079697 6.1213127276442005 134 87 55 0.30347874575144795 24 320 15 53
894 -0.11108271767279018 0.20935728266011136 5.6913646517971319 133 98 65 1.9075990848179161 44 833 32 627 45 678 40 873 43 602
897 1.5792690494385175 0.054029293253554024 5.9138707768999277 228 208 175 0.56560156700077813 24 998 32 639 45 681 36 507 40 484 43 314 35 435 23 391 42 336 18 496 37 417 22 355 8 486 19 324 41 250 7 282
898 0.95281791661939008 0.91765149067127749 5.4407599927832102 185 149 123 0.24160640643218242 34 642 32 642 36 745 33 482
1043 1.0986009742848217 0.96824198501131931 5.7705622502856748 111 75 47 0.52807802057532383 44 506 45 499 40 682
3095 -0.063928194699579249 0.0025945662001592329 6.3714416174317199 100 80 63 1.3746856842151542 27 82 31 84 46 121 29 73 11 71 30 63 48 96 26 65 49 74 14 69
1556 0.23433534392250802 1.5476152779219992 5.5483780619852343 67 46 35 0.78066511530501159 43 731 35 780 23 608 42 835 37 830 22 863 19 537 41 811
903 -0.46892334221045762 0.57680353194167799 8.088209809363363 119 77 51 0.50499625404686843 34 711 32 659
1566 0.8735996030841312 0.57148555509484456 5.2949272219184635 163 134 112 0.085352334640757865 43 846 35 855 42 663
905 0.87546027317135799 0.97405560952518511 5.3941412102567634 193 165 135 0.24993221806713212 44 710 32 661 15 923 33 627
906 0.13781480197768517 0.96696825353553295 5.5442681508716056 223 196 166 0.42644077742715919 24 590 32 664 36 577 40 761 35 447 23 438 17 441 18 392 22 552 8 355
907 -1.0049129556101866 0.62756249499838679 8.0980541588476616 136 88 59 0.72905528554244514 36 899 24 560 40 867 17 525
3608 -0.087962221859915105 1.3046121224039682 6.1345006936609439 88 74 59 0.30680821113494089 27 772 29 759 11 426 30 658 26 612 14 862
909 0.41373666670477388 0.27973075007233461 5.2419471089437888 161 127 103 1.581979329157911 44 641 32 673 35 648 17 552 47 577 37 488 22 673 46 603 8 427 29 921 30 631 48 789 21 563 19 416 38 621 2 764
3602 2.5462204534223067 1.5889249915374357 5.9659314144299973 173 122 77 0.22427879470440351 27 549 29 722 11 509 13 498 3 384
910 -1.2314696741035545 0.6828803959325862 8.0519874393209001 158 107 72 0.48595028690350461 24 686 32 677 23 861 17 531
1564 1.5613830722806299 0.36117080634616755 5.9405222447142503 202 175 153 0.44874980285282212 43 882 35 850 23 862 42 687 18 792 37 760 22 642 8 467 19 454 21 659 38 590 7 397 16 572 39 690 4 583 20 336 6 535 5 573
1638 0.7398876672441701 0.71541136472491618 5.4027977357816841 96 71 45 2.6518137731336608 40 261 23 543
913 -0.12368917256547883 1.0300285729610039 5.7366496512796816 243 219 189 0.19067405185997779 44 754 32 691
915 1.2681363276031299 0.99230189957829151 6.1455558015233951 106 81 63 0.26203735282203322 34 704 32 694 45 771 36 596 24 588 40 487 43 555 35 576 23 568 42 805 37 544 41 654 21 497
917 0.017516819153468421 0.80444220943950584 5.6012221332222545 89 62 47 0.23321415415649424 24 705 32 698 45 586 36 535 40 434 43 508
918 0.61827831836218217 0.88920212609197036 5.317565198292459 195 160 132 1.2766304782656546 34 638 32 701 36 539 40 614 15 759 31 595 10 947 48 561 26 626 13 785 19 717 3 678
1636 0.41474558483712298 0.61589188672917417 5.5491610323890379 169 136 109 0.6049595637134032 24 502 40 750 23 533 42 471
919 1.3142606917646571 1.0303629445975673 6.1875272380710298 159 139 112 0.28940932176761025 44 773 32 702 36 963 23 573 37 551 22 834 19 745 41 535
1646 0.41527355850857384 1.4272605766137372 5.5993661520597895 94 65 43 0.54441793477759448 36 914 23 599 37 672
1131 0.97390586494599884 0.59944222828558025 5.6222085171210265 149 121 97 1.6501338215490742 24 146 36 113 40 105 17 69 9 191 18 79 2 124
923 0.91773655386924791 1.1623698568481786 5.8576578933161727 120 92 75 0.31293568552293849 44 519 32 724 47 747
3688 0.034621037506232646 -0.36692801987073292 6.2509525963509303 255 254 238 0.31934486875085266 29 614 11 480 26 642 49 632 13 485 14 342 1 415
1031 -0.010208003485321233 1.4476280977396923 5.4588718604951243 22 13 6 1.0758919034305572 32 461 45 403 47 272
926 0.50139123470267088 1.3599227724456269 5.7113869033597702 111 84 58 1.1366906677329454 44 816 32 744 45 528 36 618 40 567 35 355 42 259 47 765 18 852 8 516 19 183
1644 -0.71861254629175164 1.363062901975497 6.839856501505861 146 98 60 0.57915843429997615 36 907 23 572 18 383
927 1.5186289209918888 1.6362720833245681 6.029021989353339 102 62 39 0.30724297670600581 24 646 32 745 23 729 17 634 18 644 33 533
1075 1.035905212344687 0.21509006605248776 5.3957093221973373 121 90 63 0.2388992707806418 32 710 45 665 36 495 40 464 43 429 15 650 25 720 33 823 47 580 12 778
930 1.4370143987360775 0.30670109797465073 5.7977305072602867 248 226 199 0.2688982549801413 24 820 32 758 45 700 36 770 40 728 43 481 35 503 23 522 17 715 42 459 18 755 22 477 19 585 21 741 7 624 16 562 39 674 20 410
3805 -0.19056267266481197 1.2316316432206824 5.716871151474062 53 29 15 0.69470165919376647 46 368 30 238 48 265 26 105 49 185
1234 0.25210784611942916 1.4603321216498892 5.4695389479577763 96 62 40 0.30252641297203703 45 820 36 916 40 849 43 569 35 712 23 601 42 544 19 772
931 -0.12023210907305454 1.4642466449102363 5.6275780860009572 93 67 49 0.024821779498384846 24 636 32 759 45 538
934 0.9226442040672258 1.5065359659933517 6.0001368580933256 142 114 96 0.094567118479784301 24 931 32 770 45 623 17 937
1588 0.16561703513262235 0.51974210096348272 5.3415392381707667 255 255 250 1.6823971650284661 34 24 28 15 17 24 15 15 44 23 9 11 18 15 10 9 13 16 3 11 2 14 1 8
3286 0.013043997841280814 0.62481031039003609 5.4011661070145509 92 65 44 1.0044917974243475 15 919 46 638 31 491 36 551 29 400 11 301 30 328 48 309 26 364 49 337 14 380 27 645 1 413
1083 0.32277073154141506 0.93230284049271128 5.434890475477606 176 142 116 0.49585185116089853 28 854 45 684 36 750 40 627 43 787
938 0.41520094336101987 1.5693925621068026 5.6386641621846625 211 180 155 0.29816320803526714 24 958 44 615 32 780 45 617 36 941 40 644 43 745 35 742 42 712 47 598
1242 1.0113396260316492 1.1654359595908161 5.9143658557986685 164 136 110 0.30433686049170205 45 797 36 957 43 700
